ncols        271
nrows        19
xllcorner    4560726.74431
yllcorner    5272524.28174
cellsize     50.000000000000
NODATA_value  -99999
1744.8221435546875 1742.0938720703125 1743.9881591796875 1755.5675048828125 1786.591552734375 1840.6343994140625 1866.2364501953125 1827.83935546875 1744.82275390625 1652.048583984375 1564.4305419921875 1482.888916015625 1403.77001953125 1327.1483154296875 1288.730712890625 1255.432861328125 1230.1229248046875 1209.3275146484375 1193.5758056640625 1178.2991943359375 1163.862060546875 1150.5736083984375 1139.950439453125 1136.388427734375 1135.7557373046875 1142.84375 1146.357421875 1144.5142822265625 1141.415283203125 1123.636962890625 1095.583984375 1071.6529541015625 1046.2010498046875 1021.7435302734375 995.87835693359375 975.4649658203125 959.3529052734375 945.96771240234375 929.89910888671875 916.68267822265625 906.6470947265625 892.5347900390625 877.3524169921875 864.4295654296875 856.562744140625 852.504638671875 844.3311767578125 834.8072509765625 816.21136474609375 806.68408203125 804.294677734375 804.0035400390625 803.7811279296875 803.73077392578125 803.54296875 803.17974853515625 802.86004638671875 803.01824951171875 803.3564453125 804.15509033203125 808.005859375 815.2208251953125 823.2802734375 826.74188232421875 828.6138916015625 834.8189697265625 847.26318359375 866.62158203125 881.9044189453125 894.91204833984375 910.8575439453125 929.4296875 955.49761962890625 996.84991455078125 1050.1962890625 1077.1273193359375 1094.6795654296875 1107.26171875 1087.1119384765625 1070.9154052734375 1060.6436767578125 1058.135009765625 1069.6202392578125 1093.8543701171875 1118.4827880859375 1149.2459716796875 1190.827392578125 1220.2218017578125 1239.078857421875 1250.0245361328125 1256.41650390625 1264.9390869140625 1274.827880859375 1277.8914794921875 1273.9130859375 1274.7952880859375 1280.447509765625 1292.2596435546875 1307.75439453125 1328.5047607421875 1347.6976318359375 1359.9442138671875 1369.211669921875 1376.318115234375 1381.34765625 1379.8997802734375 1372.4947509765625 1362.327880859375 1353.0548095703125 1342.1484375 1328.7569580078125 1315.952880859375 1305.29931640625 1286.7486572265625 1261.4581298828125 1235.7535400390625 1214.2640380859375 1195.8863525390625 1178.46435546875 1164.1171875 1155.7086181640625 1146.1705322265625 1144.3089599609375 1142.8555908203125 1137.1119384765625 1127.4364013671875 1115.947265625 1099.4228515625 1082.6270751953125 1070.38525390625 1056.5491943359375 1039.25439453125 1022.4073486328125 1008.64398193359375 998.36358642578125 990.09527587890625 977.574951171875 973.15167236328125 989.5927734375 1020.4822998046875 1050.323486328125 1062.2811279296875 1064.571533203125 1061.1807861328125 1059.9681396484375 1060.87548828125 1062.9708251953125 1065.359619140625 1067.0616455078125 1067.422119140625 1064.4974365234375 1056.782958984375 1037.2646484375 997.23187255859375 959.1466064453125 924.96728515625 893.79693603515625 866.54449462890625 844.5870361328125 826.4124755859375 812.90673828125 800.2391357421875 784.36590576171875 762.726806640625 741.1468505859375 724.42095947265625 712.62060546875 708.30169677734375 709.58837890625 711.8504638671875 707.242431640625 708.23919677734375 713.7432861328125 725.906494140625 733.3406982421875 739.726806640625 748.51080322265625 758.74908447265625 763.45062255859375 766.55511474609375 772.419677734375 779.79351806640625 787.69873046875 798.83062744140625 806.5758056640625 817.53009033203125 832.92034912109375 851.35009765625 869.8782958984375 888.407958984375 904.0013427734375 913.9486083984375 919.60980224609375 918.37255859375 907.2548828125 897.7064208984375 895.67291259765625 889.735595703125 875.96881103515625 865.25042724609375 864.10723876953125 880.58404541015625 903.77667236328125 930.33111572265625 963.34954833984375 1002.26593017578125 1045.361328125 1074.138427734375 1091.87451171875 1103.0833740234375 1110.3643798828125 1115.976318359375 1121.866455078125 1124.45703125 1124.0379638671875 1123.5802001953125 1123.45947265625 1125.7607421875 1131.19287109375 1135.4588623046875 1137.6783447265625 1140.4810791015625 1136.3642578125 1131.8892822265625 1126.530517578125 1122.2720947265625 1119.998779296875 1119.0985107421875 1115.04345703125 1113.09130859375 1124.69482421875 1142.0775146484375 1161.1895751953125 1182.2294921875 1204.913818359375 1228.8140869140625 1249.88232421875 1260.9375 1254.925537109375 1237.46875 1199.7379150390625 1152.4404296875 1117.619873046875 1087.110107421875 1055.1298828125 1020.91729736328125 983.5716552734375 949.9698486328125 911.2943115234375 866.0001220703125 824.4639892578125 783.77655029296875 748.6488037109375 719.73065185546875 695.10980224609375 673.87860107421875 655.218505859375 640.77001953125 629.74884033203125 625.67791748046875 623.7041015625 621.88421630859375 619.711669921875 617.0177001953125 613.56060791015625 609.75347900390625 604.60296630859375 596.78790283203125 590.45697021484375 585.62652587890625 582.9761962890625
1746.3182373046875 1748.8623046875 1759.3609619140625 1781.0098876953125 1836.245361328125 1901.5968017578125 1930.2049560546875 1867.3050537109375 1782.1162109375 1704.529052734375 1610.69970703125 1516.7342529296875 1442.96240234375 1355.765380859375 1321.341064453125 1277.5126953125 1249.16552734375 1229.3533935546875 1212.6165771484375 1199.1102294921875 1185.322509765625 1172.9775390625 1164.6361083984375 1165.36083984375 1167.45654296875 1177.11669921875 1179.12060546875 1173.087646484375 1163.3353271484375 1135.4609375 1099.7158203125 1068.750244140625 1042.40576171875 1017.5516357421875 991.7213134765625 967.79498291015625 950.38238525390625 937.98486328125 923.71588134765625 912.568115234375 900.9652099609375 886.767333984375 871.88037109375 854.94158935546875 847.60247802734375 843.7464599609375 837.962646484375 827.80047607421875 813.36993408203125 806.69049072265625 804.89093017578125 804.6983642578125 805.0030517578125 804.81097412109375 804.40130615234375 803.98870849609375 803.58831787109375 803.897705078125 805.433349609375 809.91180419921875 823.0150146484375 836.983642578125 847.8145751953125 852.91339111328125 853.3887939453125 856.682861328125 866.45880126953125 885.56329345703125 908.94207763671875 926.62286376953125 942.40789794921875 960.181396484375 990.2239990234375 1035.43505859375 1089.052001953125 1107.0679931640625 1122.0880126953125 1133.8594970703125 1125.4554443359375 1110.818359375 1091.931884765625 1084.4464111328125 1088.07861328125 1103.27294921875 1120.1358642578125 1144.79541015625 1184.0357666015625 1224.2337646484375 1257.760009765625 1279.7373046875 1288.8863525390625 1296.8399658203125 1306.8204345703125 1310.2340087890625 1303.4354248046875 1303.4443359375 1310.4564208984375 1322.311279296875 1335.1846923828125 1351.5208740234375 1372.6624755859375 1386.7635498046875 1397.369873046875 1406.5445556640625 1413.619873046875 1413.8382568359375 1408.5185546875 1399.249755859375 1389.2935791015625 1379.450927734375 1364.578369140625 1352.870361328125 1337.182861328125 1314.444091796875 1287.8123779296875 1262.3033447265625 1240.234375 1218.7772216796875 1199.0574951171875 1183.9383544921875 1173.7020263671875 1167.7476806640625 1166.5714111328125 1160.251953125 1153.5782470703125 1144.1134033203125 1132.062744140625 1112.931640625 1092.6343994140625 1074.543701171875 1056.453369140625 1037.6763916015625 1021.11309814453125 1011.8074951171875 1003.34539794921875 990.9554443359375 978.609375 976.9803466796875 994.7210693359375 1026.7271728515625 1059.9151611328125 1076.836181640625 1080.8863525390625 1077.859619140625 1077.574951171875 1077.8690185546875 1078.1473388671875 1077.651123046875 1077.2083740234375 1076.4210205078125 1071.548095703125 1053.1466064453125 1017.97607421875 977.6168212890625 942.19287109375 909.8026123046875 881.1339111328125 856.52838134765625 837.0352783203125 819.5897216796875 802.71551513671875 788.73089599609375 771.0003662109375 747.2830810546875 726.10577392578125 711.76422119140625 705.68707275390625 711.1451416015625 725.0362548828125 733.440185546875 726.08831787109375 724.61712646484375 730.3179931640625 740.892333984375 747.8355712890625 752.1165771484375 760.0806884765625 769.35150146484375 774.419189453125 778.65130615234375 783.7156982421875 790.67071533203125 798.90386962890625 812.17877197265625 826.24383544921875 837.7025146484375 853.8282470703125 871.78857421875 889.66015625 907.7401123046875 921.34124755859375 929.241455078125 933.73712158203125 932.54461669921875 923.34136962890625 913.6201171875 910.6256103515625 907.1202392578125 893.22955322265625 880.31732177734375 870.58489990234375 879.21624755859375 896.2608642578125 917.83038330078125 945.679931640625 979.45623779296875 1017.98736572265625 1053.635498046875 1081.510498046875 1106.6785888671875 1118.5628662109375 1130.1177978515625 1139.4844970703125 1146.0853271484375 1149.5233154296875 1151.7274169921875 1151.225830078125 1151.792724609375 1155.213134765625 1161.0401611328125 1165.475830078125 1166.747314453125 1164.336669921875 1160.959228515625 1154.9600830078125 1149.6654052734375 1144.628662109375 1141.8944091796875 1135.333251953125 1129.8729248046875 1134.8900146484375 1148.2469482421875 1163.725341796875 1181.210205078125 1199.9656982421875 1221.2611083984375 1242.0443115234375 1260.15576171875 1272.318359375 1272.3331298828125 1249.0780029296875 1204.241943359375 1164.2850341796875 1128.3271484375 1093.0831298828125 1057.828125 1024.99169921875 989.41046142578125 946.671630859375 902.52252197265625 857.61785888671875 808.86419677734375 767.8660888671875 733.56182861328125 709.3502197265625 686.65362548828125 665.07586669921875 647.90460205078125 636.53082275390625 631.446533203125 628.8919677734375 626.71746826171875 624.10931396484375 621.10015869140625 617.61016845703125 613.4180908203125 606.88970947265625 596.6763916015625 591.72003173828125 588.408935546875 584.22821044921875
1754.5029296875 1762.4556884765625 1782.4368896484375 1820.11669921875 1884.7353515625 1946.8885498046875 1960.4052734375 1885.841064453125 1803.860107421875 1731.216064453125 1635.8529052734375 1545.8428955078125 1472.5511474609375 1387.32763671875 1353.6488037109375 1309.2098388671875 1275.208251953125 1254.5965576171875 1240.40771484375 1231.076416015625 1225.7161865234375 1219.963623046875 1208.356201171875 1209.433349609375 1209.1568603515625 1212.975830078125 1211.1778564453125 1203.79443359375 1193.058837890625 1172.9334716796875 1115.42236328125 1072.6112060546875 1040.505126953125 1011.993408203125 988.77459716796875 967.36029052734375 948.7200927734375 933.48077392578125 921.63995361328125 910.09967041015625 895.10479736328125 878.08416748046875 860.71875 840.69854736328125 828.62530517578125 824.480224609375 821.309814453125 814.11920166015625 809.05487060546875 806.380859375 805.67437744140625 805.62640380859375 806.0687255859375 805.80987548828125 805.09918212890625 804.63568115234375 805.0867919921875 807.20166015625 811.90203857421875 826.84710693359375 846.93804931640625 863.65374755859375 877.9945068359375 890.35247802734375 896.11822509765625 897.51300048828125 903.845947265625 920.0050048828125 942.1578369140625 963.88623046875 984.28173828125 1001.91119384765625 1029.326416015625 1074.5452880859375 1130.3792724609375 1145.8787841796875 1158.150634765625 1171.9622802734375 1176.524169921875 1161.587890625 1138.09765625 1118.94189453125 1117.7725830078125 1126.56640625 1137.336669921875 1153.7431640625 1181.576171875 1218.6375732421875 1258.388427734375 1294.4083251953125 1314.4544677734375 1323.5277099609375 1332.515625 1337.027587890625 1332.6778564453125 1333.2222900390625 1340.4429931640625 1352.357421875 1366.0933837890625 1377.892578125 1397.8970947265625 1414.35546875 1425.7139892578125 1435.7457275390625 1443.1278076171875 1446.4169921875 1443.9613037109375 1435.823486328125 1427.0548095703125 1416.2891845703125 1399.9627685546875 1389.6322021484375 1370.145751953125 1343.43798828125 1314.177978515625 1286.224365234375 1261.2203369140625 1237.22705078125 1216.923095703125 1203.212646484375 1193.9971923828125 1191.094970703125 1186.6134033203125 1177.5576171875 1168.036865234375 1156.935546875 1141.408447265625 1116.3843994140625 1090.5543212890625 1068.833251953125 1048.9576416015625 1031.4051513671875 1018.58038330078125 1012.817138671875 1005.50250244140625 989.318603515625 981.1927490234375 983.237060546875 1002.211181640625 1034.0059814453125 1067.888916015625 1088.53515625 1094.5589599609375 1093.576171875 1094.761474609375 1095.0321044921875 1094.2913818359375 1090.6402587890625 1087.382568359375 1087.197998046875 1078.0899658203125 1047.04736328125 996.88519287109375 958.5885009765625 926.43487548828125 896.2503662109375 869.543701171875 847.9486083984375 829.73016357421875 811.02520751953125 795.05230712890625 779.5621337890625 758.60040283203125 733.9571533203125 715.49896240234375 706.2608642578125 710.6112060546875 723.62030029296875 743.27593994140625 755.3223876953125 749.830322265625 751.15472412109375 760.07891845703125 771.94549560546875 777.073486328125 772.9422607421875 775.45794677734375 781.47265625 786.26275634765625 791.3426513671875 796.42462158203125 802.84222412109375 810.96051025390625 823.9898681640625 842.59521484375 859.33935546875 874.91339111328125 892.73516845703125 909.937744140625 927.8944091796875 943.05908203125 952.16864013671875 955.5888671875 953.69427490234375 945.11370849609375 933.67108154296875 927.0791015625 924.1939697265625 910.65478515625 893.97900390625 879.68701171875 880.73236083984375 893.1556396484375 908.88079833984375 932.21435546875 961.1409912109375 992.88287353515625 1024.992431640625 1053.7022705078125 1080.6727294921875 1103.8134765625 1126.85888671875 1146.296630859375 1161.2320556640625 1168.8973388671875 1174.6776123046875 1176.768310546875 1178.27587890625 1180.3406982421875 1186.6588134765625 1191.862060546875 1191.5892333984375 1188.5394287109375 1183.2958984375 1175.5621337890625 1167.9947509765625 1162.086181640625 1159.03515625 1152.8006591796875 1146.654296875 1148.43310546875 1155.5179443359375 1166.8349609375 1180.2366943359375 1195.225830078125 1212.532958984375 1232.2784423828125 1252.954833984375 1269.865966796875 1276.3646240234375 1268.2242431640625 1243.5892333984375 1207.256591796875 1169.8131103515625 1130.540771484375 1094.6866455078125 1064.246826171875 1026.4219970703125 981.0316162109375 936.90936279296875 887.04779052734375 837.15655517578125 792.57391357421875 753.8843994140625 725.577880859375 699.7490234375 672.91259765625 652.27117919921875 643.9033203125 637.6884765625 634.40606689453125 631.893798828125 628.8868408203125 625.48321533203125 621.62774658203125 617.052001953125 610.421142578125 599.5628662109375 592.787841796875 588.695068359375 586.18499755859375
1773.379150390625 1783.7977294921875 1816.8331298828125 1873.4058837890625 1938.5665283203125 1968.154296875 1954.7237548828125 1891.74658203125 1816.882080078125 1746.9010009765625 1658.936279296875 1564.8465576171875 1494.516357421875 1419.28466796875 1383.3150634765625 1340.1099853515625 1304.859375 1290.0223388671875 1280.9912109375 1277.4884033203125 1272.3123779296875 1262.00048828125 1247.3326416015625 1245.045166015625 1251.5225830078125 1251.0709228515625 1244.4598388671875 1239.98388671875 1232.4375 1217.300048828125 1148.9169921875 1084.766845703125 1043.384033203125 1008.954833984375 982.9425048828125 962.23046875 944.06536865234375 927.66802978515625 916.7073974609375 903.6605224609375 885.72174072265625 864.00408935546875 843.20489501953125 825.38787841796875 815.025634765625 812.6893310546875 811.47784423828125 809.464599609375 807.90521240234375 806.97979736328125 806.70855712890625 807.1312255859375 806.748291015625 806.20001220703125 805.67120361328125 806.3680419921875 810.365234375 820.68731689453125 832.181396484375 852.2808837890625 875.16766357421875 894.6502685546875 910.78546142578125 928.4315185546875 942.8515625 949.88323974609375 952.915771484375 959.2730712890625 974.08380126953125 995.1981201171875 1019.579345703125 1043.6014404296875 1069.1680908203125 1110.5982666015625 1169.0162353515625 1195.9522705078125 1211.82421875 1223.1527099609375 1223.0106201171875 1211.13525390625 1188.6175537109375 1158.6055908203125 1150.14111328125 1155.0013427734375 1160.5125732421875 1173.7894287109375 1194.6048583984375 1218.915283203125 1252.910400390625 1297.5648193359375 1327.49658203125 1341.4307861328125 1352.2213134765625 1358.539306640625 1358.872314453125 1363.6971435546875 1372.723388671875 1384.2064208984375 1396.959716796875 1405.314453125 1423.1083984375 1440.22216796875 1453.48388671875 1462.6500244140625 1469.4932861328125 1476.3387451171875 1476.004638671875 1471.2371826171875 1465.0794677734375 1453.380126953125 1435.912841796875 1424.1748046875 1402.1922607421875 1373.401123046875 1337.2845458984375 1305.255126953125 1278.4515380859375 1255.1043701171875 1237.728515625 1224.5438232421875 1220.32666015625 1214.2935791015625 1204.2498779296875 1192.543701171875 1178.175537109375 1160.3587646484375 1137.6978759765625 1110.660400390625 1084.993408203125 1062.5460205078125 1043.3623046875 1027.93115234375 1017.52960205078125 1011.3206787109375 1002.50372314453125 993.9320068359375 990.051513671875 996.04547119140625 1014.45635986328125 1044.315673828125 1075.7852783203125 1098.58056640625 1107.656982421875 1107.9080810546875 1108.882080078125 1110.4693603515625 1109.50732421875 1103.2586669921875 1101.202392578125 1098.057861328125 1081.7000732421875 1041.150390625 983.2900390625 944.686767578125 913.2513427734375 885.905517578125 861.81622314453125 841.9210205078125 823.31036376953125 805.99993896484375 788.69549560546875 772.2498779296875 746.57171630859375 723.65533447265625 710.54217529296875 708.5335693359375 722.3704833984375 741.57855224609375 761.45947265625 775.13330078125 781.33758544921875 788.13946533203125 796.68804931640625 806.500244140625 809.01971435546875 799.76116943359375 793.75958251953125 797.5887451171875 804.397705078125 807.5430908203125 810.65936279296875 816.22821044921875 823.53424072265625 837.15985107421875 858.07012939453125 879.1346435546875 895.2890625 913.3548583984375 932.140869140625 951.52044677734375 969.7713623046875 982.64630126953125 987.26300048828125 983.8221435546875 973.53167724609375 958.1243896484375 946.42559814453125 938.932861328125 925.956787109375 908.28515625 891.96722412109375 884.84283447265625 894.780029296875 904.88214111328125 921.859130859375 947.019287109375 973.9998779296875 1000.24859619140625 1024.27587890625 1046.6644287109375 1074.7166748046875 1105.0831298828125 1135.934326171875 1163.1304931640625 1180.84716796875 1191.677001953125 1199.9173583984375 1204.3731689453125 1206.5069580078125 1211.5572509765625 1215.404541015625 1212.4129638671875 1206.788818359375 1198.912109375 1190.0311279296875 1182.4503173828125 1176.7476806640625 1171.631591796875 1167.0577392578125 1164.5699462890625 1165.3851318359375 1165.2823486328125 1171.4783935546875 1181.0833740234375 1192.9757080078125 1208.9910888671875 1228.8594970703125 1247.37060546875 1251.8990478515625 1240.99609375 1237.1522216796875 1230.521484375 1208.52001953125 1182.319580078125 1158.3280029296875 1130.8048095703125 1096.2264404296875 1056.9666748046875 1008.443603515625 958.9503173828125 910.85650634765625 864.65631103515625 815.8294677734375 772.66632080078125 740.08258056640625 708.52874755859375 681.76947021484375 662.6650390625 649.808837890625 643.0733642578125 639.96624755859375 637.37493896484375 634.02008056640625 629.97271728515625 625.5758056640625 620.66448974609375 613.887939453125 603.0594482421875 593.38079833984375 589.596435546875 590.75079345703125
1802.39453125 1821.57958984375 1876.195068359375 1929.5194091796875 1982.945556640625 1966.0863037109375 1926.011962890625 1889.9029541015625 1832.551513671875 1768.1661376953125 1682.4439697265625 1590.5780029296875 1518.370849609375 1455.02294921875 1421.27392578125 1384.22607421875 1346.452880859375 1337.5421142578125 1335.8140869140625 1322.2916259765625 1308.8221435546875 1291.840576171875 1286.3868408203125 1291.44482421875 1294.652099609375 1287.99755859375 1279.632568359375 1278.2586669921875 1267.6517333984375 1233.2764892578125 1155.359619140625 1094.6876220703125 1047.4600830078125 1007.50970458984375 976.82843017578125 953.99041748046875 934.00408935546875 916.75115966796875 903.94512939453125 888.47052001953125 867.84490966796875 846.0911865234375 827.43304443359375 815.4549560546875 811.6917724609375 810.72930908203125 809.90899658203125 808.82611083984375 808.1141357421875 808.14666748046875 808.2882080078125 807.860107421875 807.118408203125 806.51336669921875 806.7728271484375 811.97509765625 830.11517333984375 847.31964111328125 864.16064453125 883.3218994140625 904.92864990234375 927.92724609375 947.11041259765625 965.42266845703125 982.35205078125 994.96173095703125 1001.17059326171875 1004.39508056640625 1011.8092041015625 1027.5037841796875 1047.3013916015625 1075.6610107421875 1103.9638671875 1139.3697509765625 1190.0115966796875 1230.3626708984375 1260.225830078125 1279.03125 1278.56884765625 1264.3985595703125 1242.7762451171875 1204.2103271484375 1181.6025390625 1179.0164794921875 1182.9573974609375 1196.428466796875 1214.6390380859375 1232.5982666015625 1258.1727294921875 1300.334716796875 1336.188720703125 1358.344482421875 1372.204833984375 1380.791748046875 1387.0731201171875 1395.1856689453125 1406.418212890625 1416.6575927734375 1428.036865234375 1438.6356201171875 1450.510986328125 1466.1177978515625 1479.11474609375 1489.4932861328125 1497.3671875 1504.1497802734375 1505.448974609375 1503.32080078125 1501.5052490234375 1493.8638916015625 1474.101318359375 1457.1263427734375 1430.9678955078125 1400.564697265625 1358.650390625 1322.8023681640625 1297.2449951171875 1276.3001708984375 1260.5257568359375 1253.0963134765625 1248.623046875 1236.8623046875 1220.8555908203125 1203.0577392578125 1183.074462890625 1158.66259765625 1132.5941162109375 1106.6947021484375 1081.7330322265625 1060.501220703125 1043.022216796875 1028.478271484375 1017.84344482421875 1011.2625732421875 1004.09619140625 1006.9056396484375 1009.28515625 1016.85296630859375 1032.914306640625 1059.1175537109375 1085.5498046875 1106.48095703125 1117.0247802734375 1119.689453125 1120.7659912109375 1121.97265625 1121.2132568359375 1117.0103759765625 1114.40576171875 1104.8385009765625 1071.7803955078125 1017.34625244140625 971.310546875 935.100341796875 904.0633544921875 877.89129638671875 855.5115966796875 836.5494384765625 818.29278564453125 800.06378173828125 782.863037109375 764.28216552734375 737.26239013671875 717.1090087890625 710.51416015625 717.0562744140625 735.202392578125 758.71575927734375 779.34393310546875 798.0567626953125 815.51708984375 826.6806640625 831.636474609375 834.44586181640625 832.8160400390625 822.74560546875 813.85809326171875 816.96331787109375 824.46429443359375 829.845947265625 831.134765625 833.32220458984375 838.80389404296875 849.979736328125 872.197265625 895.7393798828125 915.50958251953125 934.67572021484375 955.65576171875 977.5146484375 999.01025390625 1015.11474609375 1021.0865478515625 1018.77862548828125 1006.67218017578125 984.90740966796875 969.16650390625 956.85101318359375 940.9927978515625 923.23785400390625 906.000732421875 892.89886474609375 893.839599609375 901.11737060546875 915.22625732421875 937.15496826171875 959.11962890625 980.369873046875 999.75634765625 1021.42889404296875 1048.61328125 1079.7991943359375 1115.168701171875 1148.884765625 1176.6036376953125 1198.33642578125 1216.5146484375 1227.31396484375 1232.098876953125 1234.3902587890625 1233.75927734375 1227.510009765625 1217.97900390625 1208.6865234375 1199.59716796875 1192.589599609375 1187.064208984375 1181.1861572265625 1178.21875 1178.673583984375 1179.4449462890625 1177.51220703125 1178.271240234375 1183.9432373046875 1193.3585205078125 1207.5413818359375 1225.7032470703125 1240.4639892578125 1232.6240234375 1198.7003173828125 1174.859619140625 1166.01904296875 1159.6160888671875 1144.2061767578125 1150.796875 1131.198974609375 1104.664794921875 1080.4879150390625 1032.9483642578125 964.0748291015625 916.16851806640625 873.40447998046875 828.31298828125 784.810791015625 747.5936279296875 713.83477783203125 687.8673095703125 671.26300048828125 657.0416259765625 649.25653076171875 645.9365234375 642.99761962890625 639.08270263671875 634.3392333984375 629.42718505859375 623.979248046875 616.68994140625 604.4910888671875 594.26617431640625 591.84686279296875 595.90863037109375
1842.9661865234375 1877.8001708984375 1943.5538330078125 1983.6722412109375 2007.1710205078125 1958.5482177734375 1900.154541015625 1862.48828125 1825.4317626953125 1777.175537109375 1710.438232421875 1631.709228515625 1563.3521728515625 1492.8878173828125 1459.0125732421875 1415.1336669921875 1395.822998046875 1386.3253173828125 1374.022705078125 1352.767333984375 1335.73486328125 1324.897705078125 1327.78466796875 1331.224853515625 1326.7711181640625 1318.442626953125 1313.403076171875 1294.532958984375 1264.761474609375 1217.27783203125 1143.3858642578125 1091.6590576171875 1043.3218994140625 1002.8441162109375 970.91522216796875 946.99566650390625 923.87481689453125 902.9759521484375 884.99835205078125 866.727783203125 847.12786865234375 830.049560546875 818.19146728515625 812.98431396484375 811.83642578125 810.9871826171875 810.1104736328125 809.45135498046875 809.056396484375 809.26513671875 808.8680419921875 808.20068359375 807.63714599609375 807.3583984375 809.21826171875 820.43109130859375 850.99652099609375 878.90826416015625 897.6890869140625 915.00732421875 932.60015869140625 954.66912841796875 978.8870849609375 1000.11590576171875 1017.40118408203125 1036.9600830078125 1051.56005859375 1060.6905517578125 1061.6490478515625 1063.48583984375 1074.7188720703125 1098.17333984375 1134.473876953125 1167.6756591796875 1196.6090087890625 1239.0919189453125 1281.554443359375 1320.602294921875 1342.527099609375 1328.83251953125 1294.8480224609375 1247.3465576171875 1212.86767578125 1202.77197265625 1206.393310546875 1220.672119140625 1236.761474609375 1252.34033203125 1273.618896484375 1305.306640625 1343.972412109375 1378.005126953125 1398.9525146484375 1410.8118896484375 1419.56396484375 1428.649169921875 1440.9652099609375 1448.4122314453125 1459.4930419921875 1472.029541015625 1480.266845703125 1494.0987548828125 1506.4798583984375 1516.537841796875 1525.08837890625 1530.861572265625 1533.8438720703125 1534.0784912109375 1536.18212890625 1533.0958251953125 1511.676025390625 1485.5738525390625 1452.29052734375 1416.491943359375 1375.6407470703125 1341.579345703125 1317.5760498046875 1298.402587890625 1287.2396240234375 1283.90625 1276.5352783203125 1258.566650390625 1236.6455078125 1212.912841796875 1187.5556640625 1161.3717041015625 1134.9610595703125 1109.7227783203125 1085.6622314453125 1064.38916015625 1045.4117431640625 1029.462890625 1017.95916748046875 1012.684814453125 1012.52783203125 1022.3944091796875 1032.4161376953125 1042.0826416015625 1055.848876953125 1076.787109375 1098.2088623046875 1115.8350830078125 1125.792724609375 1129.430419921875 1131.99560546875 1133.2984619140625 1133.0782470703125 1129.0228271484375 1118.3883056640625 1091.3817138671875 1040.4656982421875 995.08624267578125 958.74993896484375 925.830810546875 896.75762939453125 871.0662841796875 848.91278076171875 829.98797607421875 810.73529052734375 791.92767333984375 775.03314208984375 751.8818359375 728.4267578125 714.26629638671875 716.0372314453125 730.8641357421875 748.99493408203125 772.4068603515625 796.4432373046875 823.02783203125 844.09588623046875 858.53741455078125 862.0455322265625 858.87567138671875 852.87896728515625 843.8951416015625 837.99383544921875 842.37884521484375 848.75408935546875 856.68695068359375 857.27288818359375 854.81005859375 859.43408203125 864.45062255859375 882.24578857421875 909.2593994140625 933.8255615234375 955.94403076171875 979.82257080078125 1004.5938720703125 1027.6893310546875 1042.890625 1048.3685302734375 1048.8868408203125 1037.3841552734375 1013.39825439453125 995.3421630859375 978.1502685546875 958.32666015625 938.491943359375 921.09027099609375 909.5313720703125 903.7930908203125 905.294189453125 914.69537353515625 931.197509765625 948.914794921875 966.81903076171875 986.23577880859375 1008.3326416015625 1032.7830810546875 1058.3970947265625 1092.13720703125 1126.691162109375 1158.7080078125 1187.59130859375 1213.7161865234375 1234.9525146484375 1249.2183837890625 1253.9195556640625 1249.434814453125 1239.5528564453125 1228.227783203125 1218.171630859375 1210.430419921875 1201.1881103515625 1192.9796142578125 1189.537109375 1187.1883544921875 1186.569580078125 1185.7718505859375 1184.8798828125 1184.9185791015625 1187.2901611328125 1192.4368896484375 1195.2208251953125 1201.5225830078125 1212.493896484375 1198.34716796875 1163.5509033203125 1122.8302001953125 1107.892333984375 1091.932861328125 1078.4039306640625 1094.3388671875 1087.01904296875 1075.27099609375 1067.97021484375 1034.204345703125 968.6390380859375 922.347900390625 883.34466552734375 843.2470703125 805.074951171875 763.23626708984375 725.99761962890625 699.65576171875 680.16619873046875 664.2015380859375 655.740966796875 652.3275146484375 648.4466552734375 644.0631103515625 638.72991943359375 633.1573486328125 627.0985107421875 619.97552490234375 608.60296630859375 597.61962890625 593.7119140625 599.21844482421875
1899.5396728515625 1954.861328125 1997.4215087890625 2024.789794921875 2024.4453125 1966.6939697265625 1896.705078125 1838.106689453125 1793.273681640625 1754.556884765625 1715.88330078125 1647.3436279296875 1592.0521240234375 1524.2286376953125 1484.3525390625 1444.5819091796875 1432.392333984375 1413.3785400390625 1389.49658203125 1365.244384765625 1347.2203369140625 1337.25634765625 1334.22607421875 1337.454345703125 1339.07958984375 1335.965576171875 1315.0166015625 1269.2550048828125 1227.141357421875 1179.5167236328125 1120.9912109375 1073.6337890625 1031.3248291015625 994.44317626953125 964.354736328125 940.1202392578125 916.6094970703125 893.421630859375 869.5234375 847.37091064453125 829.904052734375 819.4775390625 814.77874755859375 813.11480712890625 812.26690673828125 811.33624267578125 810.60137939453125 810.3392333984375 810.40277099609375 809.9425048828125 809.3507080078125 808.77001953125 808.4288330078125 808.88189697265625 813.9892578125 834.79345703125 876.29595947265625 907.8260498046875 928.1458740234375 946.3748779296875 962.3736572265625 980.2921142578125 1003.08526611328125 1028.6063232421875 1051.7410888671875 1077.26708984375 1099.73681640625 1116.84033203125 1118.1270751953125 1106.09912109375 1105.8035888671875 1123.6754150390625 1160.564208984375 1196.8448486328125 1220.6383056640625 1249.0513916015625 1291.111328125 1344.1292724609375 1388.3330078125 1384.3079833984375 1343.9014892578125 1288.2808837890625 1246.081298828125 1231.20654296875 1235.1055908203125 1250.239013671875 1262.9693603515625 1275.2763671875 1291.493896484375 1315.6964111328125 1349.3551025390625 1391.924072265625 1426.8348388671875 1446.13818359375 1458.5667724609375 1466.2821044921875 1475.0316162109375 1481.2628173828125 1491.3193359375 1503.94287109375 1513.3167724609375 1523.55908203125 1535.480712890625 1544.7362060546875 1553.72412109375 1559.3291015625 1563.0467529296875 1565.363037109375 1569.2425537109375 1567.9595947265625 1545.1331787109375 1507.432373046875 1463.811279296875 1424.9754638671875 1389.716796875 1361.5540771484375 1339.65185546875 1322.8837890625 1316.980224609375 1313.703125 1300.9989013671875 1277.546630859375 1250.582763671875 1222.6356201171875 1192.94970703125 1165.0673828125 1137.8201904296875 1111.916748046875 1088.1470947265625 1066.5919189453125 1046.83984375 1030.07763671875 1018.4124755859375 1016.74444580078125 1024.5662841796875 1038.6201171875 1053.9063720703125 1066.6409912109375 1078.2122802734375 1094.5009765625 1112.7999267578125 1127.8662109375 1136.2083740234375 1140.255859375 1144.20458984375 1146.188232421875 1144.3975830078125 1135.189453125 1104.991455078125 1051.6619873046875 1008.53167724609375 973.0462646484375 943.12225341796875 916.82061767578125 888.94256591796875 862.8634033203125 839.45654296875 819.37396240234375 800.84222412109375 783.39080810546875 763.70404052734375 739.542236328125 721.52008056640625 717.8486328125 728.0777587890625 747.050537109375 765.16510009765625 785.99908447265625 813.74285888671875 844.71563720703125 866.314697265625 878.93524169921875 882.92828369140625 879.676513671875 871.29949951171875 865.71197509765625 867.6185302734375 871.692138671875 876.82647705078125 881.731689453125 882.5867919921875 879.18817138671875 882.463623046875 883.1890869140625 893.6754150390625 916.587890625 945.25799560546875 973.68780517578125 1003.38079833984375 1031.1142578125 1051.1124267578125 1061.695068359375 1065.9339599609375 1067.95068359375 1060.2645263671875 1042.059326171875 1023.39556884765625 1001.3758544921875 976.71990966796875 953.877685546875 936.87353515625 924.946044921875 917.47027587890625 913.53802490234375 914.6973876953125 927.275390625 941.06646728515625 956.74359130859375 975.504638671875 996.8538818359375 1017.81988525390625 1041.6778564453125 1072.2796630859375 1105.6378173828125 1136.9814453125 1165.8699951171875 1194.31201171875 1222.4569091796875 1247.93212890625 1262.5784912109375 1260.8157958984375 1250.756591796875 1240.09228515625 1230.0771484375 1222.308837890625 1212.591796875 1199.893310546875 1193.7816162109375 1190.418212890625 1187.360107421875 1185.5684814453125 1185.7181396484375 1185.7921142578125 1186.5008544921875 1184.76806640625 1168.67724609375 1155.8511962890625 1153.1414794921875 1137.3880615234375 1112.4375 1079.353515625 1060.7662353515625 1033.9078369140625 1019.871337890625 1019.2296142578125 1021.97027587890625 1019.45733642578125 1013.43768310546875 998.2919921875 972.61297607421875 939.109375 907.2144775390625 876.93878173828125 835.572021484375 787.39544677734375 742.8387451171875 711.38446044921875 685.8065185546875 669.24114990234375 662.1102294921875 658.42095947265625 653.8543701171875 648.84246826171875 642.86407470703125 636.599609375 630.26910400390625 623.5203857421875 615.21356201171875 604.9609375 597.95538330078125 600.164306640625
1954.6707763671875 2017.8524169921875 2032.89453125 2022.681396484375 2014.8466796875 1980.41015625 1915.2257080078125 1841.59912109375 1775.2828369140625 1722.462158203125 1682.6787109375 1629.5899658203125 1583.0501708984375 1535.00927734375 1497.07861328125 1464.5443115234375 1439.0013427734375 1411.7928466796875 1383.768310546875 1358.9801025390625 1334.3609619140625 1316.2027587890625 1311.384033203125 1318.293212890625 1330.8363037109375 1329.8515625 1283.2962646484375 1222.6102294921875 1186.856201171875 1146.900390625 1098.530029296875 1053.4549560546875 1017.36370849609375 984.9786376953125 957.2489013671875 934.02667236328125 912.2320556640625 888.5169677734375 860.25213623046875 835.50079345703125 821.14459228515625 815.9244384765625 814.293212890625 813.46807861328125 812.70245361328125 811.8997802734375 811.5203857421875 811.462646484375 811.17620849609375 810.684326171875 810.080322265625 809.62603759765625 809.64910888671875 811.8988037109375 822.08843994140625 851.51885986328125 898.5213623046875 933.64422607421875 956.70819091796875 978.12359619140625 995.2200927734375 1011.68341064453125 1031.03271484375 1056.6002197265625 1084.8592529296875 1116.096435546875 1144.580810546875 1164.8114013671875 1166.8221435546875 1149.908447265625 1143.6123046875 1158.681640625 1183.03759765625 1212.1370849609375 1245.1231689453125 1276.8182373046875 1305.58935546875 1347.255126953125 1406.6815185546875 1426.012451171875 1394.7666015625 1339.5831298828125 1290.715087890625 1263.09033203125 1266.132080078125 1282.167724609375 1293.2305908203125 1302.5465087890625 1313.7083740234375 1332.0660400390625 1358.9951171875 1397.158935546875 1443.635009765625 1477.7183837890625 1497.9688720703125 1506.78466796875 1511.9573974609375 1516.9095458984375 1525.98388671875 1536.99609375 1548.877197265625 1557.26708984375 1567.060546875 1575.585205078125 1583.730712890625 1590.206787109375 1594.108154296875 1598.0267333984375 1603.5535888671875 1600.2664794921875 1573.9210205078125 1521.6280517578125 1475.19287109375 1438.489501953125 1407.68701171875 1383.09326171875 1363.5513916015625 1350.504150390625 1347.6627197265625 1340.208251953125 1319.464599609375 1291.2833251953125 1262.0577392578125 1234.759033203125 1205.92138671875 1175.8900146484375 1142.69970703125 1110.7689208984375 1086.3602294921875 1065.1441650390625 1045.83544921875 1029.3736572265625 1020.1417236328125 1024.2156982421875 1039.2510986328125 1057.2076416015625 1074.5654296875 1088.18115234375 1097.98779296875 1111.308349609375 1127.8070068359375 1140.893798828125 1148.8978271484375 1153.6309814453125 1157.625732421875 1158.4271240234375 1152.2352294921875 1128.9970703125 1077.54150390625 1025.580322265625 988.35382080078125 955.76812744140625 926.98907470703125 903.1939697265625 880.4620361328125 854.481201171875 830.2169189453125 809.65264892578125 792.3978271484375 775.1497802734375 752.81744384765625 731.40533447265625 720.59295654296875 727.86798095703125 743.9931640625 762.6527099609375 780.37493896484375 801.21002197265625 832.492431640625 864.239013671875 885.98699951171875 895.03369140625 899.0126953125 895.990966796875 889.53741455078125 886.921875 895.83868408203125 902.00372314453125 906.70751953125 907.6063232421875 906.170654296875 902.531005859375 904.84161376953125 906.75042724609375 913.8372802734375 925.6776123046875 952.41424560546875 988.460693359375 1028.3609619140625 1055.3011474609375 1068.653564453125 1075.8961181640625 1079.5198974609375 1081.826416015625 1078.15478515625 1067.0042724609375 1049.412109375 1024.0968017578125 994.675537109375 972.46453857421875 954.9361572265625 939.7996826171875 930.422119140625 923.463623046875 920.458251953125 924.1365966796875 934.99725341796875 950.78045654296875 967.37481689453125 985.7720947265625 1006.6331787109375 1030.732177734375 1058.114013671875 1087.4251708984375 1115.6044921875 1143.1337890625 1171.460693359375 1200.9483642578125 1230.336669921875 1254.0264892578125 1263.2352294921875 1259.6732177734375 1250.342529296875 1239.6494140625 1231.965576171875 1223.1414794921875 1209.4210205078125 1198.37744140625 1191.57861328125 1188.3409423828125 1187.7137451171875 1186.388671875 1186.6363525390625 1182.8681640625 1167.630615234375 1141.808837890625 1118.60009765625 1102.5283203125 1084.16796875 1065.0738525390625 1042.7344970703125 1020.47894287109375 998.86181640625 983.76922607421875 971.398193359375 963.0704345703125 957.0379638671875 951.82720947265625 939.52679443359375 945.25616455078125 945.31451416015625 930.34661865234375 908.01922607421875 858.28631591796875 804.61328125 765.8328857421875 721.04541015625 689.8631591796875 673.969482421875 668.6246337890625 663.99261474609375 659.0411376953125 652.96240234375 646.6785888671875 640.00189208984375 632.58966064453125 625.17913818359375 618.23223876953125 610.525634765625 603.777587890625 601.3779296875
1995.1431884765625 2037.6055908203125 2046.36328125 2001.9124755859375 1976.0738525390625 1967.5047607421875 1924.404296875 1849.6021728515625 1761.9862060546875 1695.4801025390625 1643.0333251953125 1600.850341796875 1561.6715087890625 1524.4959716796875 1489.3536376953125 1455.279541015625 1423.7392578125 1394.8140869140625 1368.653564453125 1345.047119140625 1321.629638671875 1296.799072265625 1284.1834716796875 1292.962646484375 1305.5040283203125 1287.0810546875 1238.0201416015625 1187.7900390625 1148.8153076171875 1114.3492431640625 1074.435546875 1033.08642578125 1000.4044189453125 972.83221435546875 948.31500244140625 927.1915283203125 906.77032470703125 883.15460205078125 854.66680908203125 830.2645263671875 818.4000244140625 815.60186767578125 814.6123046875 813.765625 813.27618408203125 812.87652587890625 812.62445068359375 812.3525390625 812.08984375 811.45281982421875 810.90582275390625 810.80682373046875 812.05792236328125 817.78289794921875 833.41693115234375 864.82647705078125 913.273681640625 954.297119140625 983.40032958984375 1007.05255126953125 1027.029052734375 1045.232666015625 1065.693359375 1089.477294921875 1117.2672119140625 1150.87548828125 1182.9866943359375 1203.698486328125 1207.5723876953125 1196.97216796875 1189.8984375 1199.9346923828125 1220.0748291015625 1239.5203857421875 1266.3033447265625 1305.83203125 1333.4664306640625 1361.7601318359375 1411.7591552734375 1449.9156494140625 1453.371337890625 1407.566162109375 1346.9656982421875 1298.9871826171875 1294.9501953125 1309.94384765625 1320.1923828125 1328.1138916015625 1338.673095703125 1351.59765625 1370.4381103515625 1401.050048828125 1442.9058837890625 1491.40576171875 1528.3916015625 1544.04833984375 1550.680908203125 1553.70703125 1563.533203125 1571.647216796875 1582.79052734375 1593.4813232421875 1602.8082275390625 1610.6739501953125 1616.828369140625 1622.9705810546875 1627.2762451171875 1631.63134765625 1636.9110107421875 1628.7666015625 1591.6029052734375 1538.1055908203125 1494.865478515625 1459.2408447265625 1429.8436279296875 1406.3931884765625 1388.2493896484375 1380.767822265625 1377.5843505859375 1363.4808349609375 1336.7353515625 1307.7811279296875 1281.959228515625 1255.581787109375 1225.0531005859375 1188.7620849609375 1147.1500244140625 1111.1705322265625 1082.9461669921875 1060.16357421875 1042.585205078125 1028.3974609375 1023.26397705078125 1034.256591796875 1054.4500732421875 1073.9300537109375 1092.7899169921875 1106.828857421875 1117.0167236328125 1128.66015625 1142.952880859375 1154.8153076171875 1163.3023681640625 1168.392333984375 1171.33349609375 1169.5291748046875 1154.823486328125 1117.908935546875 1062.17138671875 1011.93170166015625 975.57635498046875 943.561767578125 914.19732666015625 888.97216796875 867.82122802734375 845.34112548828125 821.51007080078125 802.3489990234375 786.4197998046875 768.355224609375 744.50933837890625 727.06634521484375 726.046875 741.002685546875 759.3824462890625 776.42041015625 794.9085693359375 820.030029296875 852.77777099609375 883.01971435546875 903.9677734375 912.80859375 914.959716796875 911.42822265625 906.00714111328125 907.80419921875 922.7017822265625 931.65814208984375 935.3133544921875 935.72149658203125 933.35821533203125 929.44818115234375 931.6358642578125 933.330078125 940.0601806640625 944.1796875 962.92999267578125 1002.34332275390625 1051.21728515625 1074.0673828125 1083.8770751953125 1090.2659912109375 1093.1376953125 1094.466552734375 1092.1524658203125 1084.0177001953125 1067.069580078125 1041.47265625 1014.98333740234375 991.17156982421875 971.27032470703125 954.15106201171875 942.7689208984375 933.3646240234375 928.53143310546875 928.2694091796875 932.48883056640625 945.33953857421875 958.08587646484375 973.568359375 994.51953125 1018.56329345703125 1043.8477783203125 1069.391357421875 1094.7601318359375 1120.8922119140625 1148.5045166015625 1177.10595703125 1205.67529296875 1232.42919921875 1252.547607421875 1261.013671875 1256.952392578125 1248.744384765625 1241.958740234375 1231.94482421875 1219.6376953125 1207.602294921875 1199.478271484375 1194.850830078125 1193.52978515625 1192.7799072265625 1190.2379150390625 1181.04052734375 1155.2373046875 1123.9259033203125 1096.8646240234375 1074.951171875 1056.6339111328125 1039.958251953125 1022.27630615234375 1001.25445556640625 982.6934814453125 966.90203857421875 951.03619384765625 935.35089111328125 919.587646484375 903.3953857421875 888.09130859375 883.61627197265625 887.7113037109375 894.71771240234375 885.09100341796875 850.85614013671875 822.32568359375 784.23492431640625 736.0712890625 696.6409912109375 680.23828125 674.860107421875 669.1453857421875 662.83270263671875 655.97064208984375 649.1904296875 642.18927001953125 635.5606689453125 627.73480224609375 620.66748046875 614.380859375 609.56158447265625 605.294189453125
1982.586181640625 2012.352294921875 2030.3150634765625 1978.05712890625 1918.465576171875 1892.576171875 1874.3817138671875 1818.9613037109375 1731.36962890625 1663.46240234375 1610.56982421875 1570.6815185546875 1539.6441650390625 1508.91748046875 1472.2266845703125 1434.117919921875 1402.6680908203125 1375.2462158203125 1351.9110107421875 1330.3680419921875 1307.0506591796875 1283.1317138671875 1262.4906005859375 1259.2947998046875 1259.020751953125 1239.18359375 1200.15869140625 1158.3743896484375 1115.9119873046875 1082.564208984375 1050.3206787109375 1015.21295166015625 984.8941650390625 958.8560791015625 936.00885009765625 916.193603515625 896.20770263671875 872.85955810546875 847.85614013671875 826.83056640625 817.86126708984375 816.09967041015625 815.27813720703125 814.47552490234375 814.03619384765625 813.925537109375 813.61553955078125 813.265869140625 812.8785400390625 812.33465576171875 812.09246826171875 812.91375732421875 817.6429443359375 828.9515380859375 846.42181396484375 875.984619140625 920.83551025390625 968.85797119140625 1006.02490234375 1034.3555908203125 1058.3526611328125 1081.0457763671875 1103.3739013671875 1126.5068359375 1151.7652587890625 1180.1282958984375 1209.8468017578125 1232.542724609375 1243.951416015625 1244.1348876953125 1240.66552734375 1247.0482177734375 1259.81005859375 1270.9022216796875 1292.8597412109375 1327.858642578125 1365.3284912109375 1393.8626708984375 1427.50634765625 1464.9566650390625 1492.5887451171875 1474.479736328125 1416.0457763671875 1354.04931640625 1324.3353271484375 1333.0345458984375 1341.895751953125 1350.495849609375 1363.3465576171875 1373.3284912109375 1382.937744140625 1405.6622314453125 1440.7249755859375 1494.116455078125 1552.28515625 1579.8936767578125 1587.1234130859375 1588.9141845703125 1598.4971923828125 1609.2943115234375 1615.98876953125 1628.1064453125 1637.8056640625 1646.5972900390625 1652.9111328125 1657.07373046875 1661.2052001953125 1665.2171630859375 1667.753662109375 1653.8232421875 1610.3914794921875 1563.67236328125 1522.0345458984375 1485.5821533203125 1455.4202880859375 1431.615966796875 1417.22705078125 1412.880859375 1406.8876953125 1386.62451171875 1357.9539794921875 1330.161376953125 1305.6844482421875 1278.8817138671875 1242.2703857421875 1194.5428466796875 1147.304931640625 1109.6131591796875 1079.3031005859375 1055.815185546875 1038.1884765625 1027.0662841796875 1027.5155029296875 1043.4788818359375 1065.809326171875 1085.19189453125 1104.95068359375 1122.794921875 1135.7532958984375 1147.2716064453125 1159.3441162109375 1169.86279296875 1177.9329833984375 1183.14404296875 1184.901123046875 1177.2705078125 1150.860107421875 1104.2734375 1051.8355712890625 1004.9285888671875 965.5477294921875 935.8836669921875 905.33514404296875 877.37652587890625 855.27374267578125 835.9154052734375 816.38458251953125 797.44329833984375 777.3245849609375 755.50372314453125 736.0089111328125 727.66802978515625 736.77069091796875 755.56475830078125 773.15435791015625 791.05914306640625 812.71759033203125 840.2913818359375 872.91644287109375 903.01885986328125 924.54669189453125 932.55682373046875 932.4791259765625 927.1669921875 923.3975830078125 930.98468017578125 951.2557373046875 962.35467529296875 964.38861083984375 965.36309814453125 963.80426025390625 959.07452392578125 958.2572021484375 960.322998046875 966.9398193359375 969.8779296875 980.12957763671875 1016.2884521484375 1066.8399658203125 1086.3026123046875 1094.9652099609375 1101.3485107421875 1102.91357421875 1102.130126953125 1100.4578857421875 1095.08349609375 1080.02880859375 1058.2208251953125 1032.2921142578125 1006.42584228515625 985.8753662109375 968.4039306640625 954.1297607421875 943.99835205078125 938.80242919921875 936.28692626953125 936.08880615234375 941.03851318359375 948.75946044921875 961.38323974609375 981.20233154296875 1003.38671875 1026.4072265625 1050.034912109375 1073.7066650390625 1098.5491943359375 1124.544921875 1151.6236572265625 1179.0250244140625 1206.3485107421875 1232.374267578125 1251.5921630859375 1261.44580078125 1260.437744140625 1254.005615234375 1243.5625 1231.8778076171875 1220.4779052734375 1211.875732421875 1205.914794921875 1203.1270751953125 1201.7540283203125 1196.9881591796875 1181.72705078125 1146.5216064453125 1112.971435546875 1085.9801025390625 1064.4027099609375 1046.5509033203125 1030.5023193359375 1012.7392578125 993.6849365234375 975.753173828125 959.7501220703125 943.06884765625 925.10076904296875 905.96685791015625 887.05908203125 868.45660400390625 850.27349853515625 836.02392578125 825.4453125 812.32611083984375 795.91058349609375 784.01068115234375 770.36956787109375 738.02410888671875 702.14752197265625 686.08917236328125 679.5009765625 671.83697509765625 664.22210693359375 658.077392578125 651.51922607421875 644.7894287109375 638.60760498046875 631.64910888671875 625.0340576171875 619.29931640625 614.29681396484375 609.42584228515625
1931.252685546875 1954.4921875 1983.0513916015625 1955.65185546875 1878.98583984375 1818.7305908203125 1789.1329345703125 1743.47900390625 1683.84619140625 1624.5748291015625 1580.4376220703125 1547.3258056640625 1517.6884765625 1484.546142578125 1445.782958984375 1411.431884765625 1383.3353271484375 1357.8753662109375 1334.830810546875 1311.4725341796875 1289.942138671875 1267.2266845703125 1242.567626953125 1223.1966552734375 1214.7943115234375 1201.3994140625 1167.7926025390625 1127.5125732421875 1087.30908203125 1055.302978515625 1028.2386474609375 1000.77264404296875 972.410400390625 945.9036865234375 922.63970947265625 902.23370361328125 882.11212158203125 859.77197265625 839.17987060546875 823.64410400390625 818.07598876953125 816.847412109375 815.99200439453125 815.113525390625 814.810302734375 814.920166015625 814.63653564453125 814.41485595703125 813.952880859375 813.59075927734375 813.96539306640625 816.95806884765625 826.37042236328125 842.145263671875 861.73431396484375 889.2994384765625 928.6162109375 976.82720947265625 1022.58050537109375 1059.1102294921875 1090.063232421875 1118.997802734375 1142.5433349609375 1164.8291015625 1188.2633056640625 1209.4024658203125 1229.423828125 1252.2393798828125 1272.526123046875 1283.728271484375 1286.2015380859375 1292.4952392578125 1296.910400390625 1305.0196533203125 1327.1112060546875 1355.198486328125 1387.981689453125 1423.3629150390625 1459.78271484375 1490.4208984375 1524.8525390625 1532.2889404296875 1493.9940185546875 1422.4373779296875 1364.909423828125 1355.559326171875 1363.34814453125 1374.7427978515625 1388.9246826171875 1395.5634765625 1398.6531982421875 1413.47119140625 1443.2218017578125 1500.362548828125 1574.556640625 1613.025146484375 1623.01904296875 1625.762451171875 1633.6312255859375 1646.002197265625 1653.9180908203125 1661.4747314453125 1671.436767578125 1681.650634765625 1687.759521484375 1692.1187744140625 1694.952392578125 1698.09716796875 1696.60693359375 1677.1248779296875 1637.3836669921875 1594.531494140625 1550.81591796875 1512.5423583984375 1481.4271240234375 1460.3671875 1450.9141845703125 1446.2861328125 1436.0606689453125 1411.076416015625 1381.466064453125 1355.1865234375 1330.630126953125 1300.068115234375 1256.1031494140625 1202.970703125 1152.22119140625 1109.8436279296875 1077.880126953125 1053.3193359375 1035.7022705078125 1027.6639404296875 1031.9698486328125 1047.8060302734375 1067.6629638671875 1088.66162109375 1111.8404541015625 1135.9451904296875 1153.9464111328125 1166.4097900390625 1176.476318359375 1184.974853515625 1192.601318359375 1197.806884765625 1197.4169921875 1183.1973876953125 1145.40380859375 1092.8861083984375 1044.6396484375 999.0537109375 954.79071044921875 923.10760498046875 895.92724609375 869.3817138671875 846.28363037109375 827.71649169921875 811.2271728515625 790.81048583984375 764.59246826171875 741.76177978515625 730.8856201171875 733.8848876953125 750.15087890625 770.697021484375 788.12225341796875 808.7340087890625 833.60723876953125 861.91845703125 894.2490234375 925.02325439453125 946.33966064453125 951.72442626953125 948.939453125 945.0662841796875 945.01422119140625 958.5018310546875 982.9244384765625 996.341064453125 996.2686767578125 997.17987060546875 995.1290283203125 990.21063232421875 987.93896484375 989.4449462890625 996.1329345703125 999.07940673828125 1002.87384033203125 1032.748779296875 1077.3560791015625 1093.25244140625 1100.939697265625 1106.54638671875 1107.8555908203125 1107.07421875 1106.648681640625 1103.2503662109375 1091.116455078125 1071.2216796875 1046.25830078125 1022.77490234375 1001.0440673828125 982.45660400390625 967.756103515625 957.6363525390625 950.981689453125 945.68560791015625 943.099853515625 944.438720703125 947.63592529296875 954.3345947265625 968.75811767578125 986.413330078125 1007.02239990234375 1029.5111083984375 1052.3447265625 1075.3082275390625 1098.972900390625 1125.12890625 1152.2066650390625 1180.1453857421875 1209.4345703125 1236.8779296875 1259.12890625 1269.5816650390625 1267.2197265625 1257.0048828125 1245.7060546875 1235.5601806640625 1227.3016357421875 1220.9560546875 1215.6939697265625 1212.0283203125 1206.6202392578125 1187.533935546875 1147.8441162109375 1114.9903564453125 1088.524169921875 1064.744140625 1043.341064453125 1024.7781982421875 1005.99005126953125 986.7352294921875 969.65478515625 953.0499267578125 935.71881103515625 917.9683837890625 900.2618408203125 883.5606689453125 863.93914794921875 841.666259765625 819.6771240234375 795.5057373046875 771.8970947265625 754.6593017578125 741.6021728515625 729.97686767578125 715.514404296875 699.777587890625 688.0859375 680.694580078125 673.6007080078125 666.543212890625 660.043701171875 653.4354248046875 646.90484619140625 640.596923828125 634.39068603515625 628.438232421875 622.71453857421875 617.088134765625 611.498046875
1872.5576171875 1888.4283447265625 1934.3292236328125 1939.6839599609375 1868.6385498046875 1784.014404296875 1723.8807373046875 1674.673828125 1626.45654296875 1579.33642578125 1545.9346923828125 1522.539306640625 1495.45947265625 1457.3941650390625 1419.7291259765625 1392.1602783203125 1366.13134765625 1338.0029296875 1312.5465087890625 1290.2984619140625 1270.192626953125 1250.814453125 1226.8582763671875 1198.85107421875 1181.564697265625 1170.724609375 1138.7891845703125 1099.3465576171875 1064.1053466796875 1031.419189453125 1005.56427001953125 982.04229736328125 957.260498046875 931.9384765625 908.9017333984375 887.9952392578125 868.90283203125 849.79327392578125 832.63592529296875 821.82708740234375 818.49432373046875 817.443603515625 816.587646484375 815.81707763671875 815.6492919921875 815.86669921875 815.80194091796875 815.78839111328125 816.04351806640625 816.9241943359375 819.8372802734375 825.609619140625 835.37432861328125 852.66357421875 876.2760009765625 904.89794921875 940.894775390625 985.16314697265625 1033.802734375 1077.1002197265625 1115.3319091796875 1150.433837890625 1178.0860595703125 1201.5201416015625 1224.12646484375 1243.4007568359375 1256.896484375 1271.4786376953125 1292.26708984375 1312.4346923828125 1324.986083984375 1332.93994140625 1335.984375 1343.794921875 1365.4622802734375 1392.1435546875 1414.228759765625 1442.3193359375 1486.3458251953125 1525.92041015625 1559.3385009765625 1580.292724609375 1560.0164794921875 1487.3343505859375 1414.7017822265625 1383.1982421875 1386.5047607421875 1398.483154296875 1411.9560546875 1417.1002197265625 1416.86865234375 1425.41552734375 1449.4569091796875 1498.1334228515625 1570.6112060546875 1629.678955078125 1658.6903076171875 1665.826416015625 1671.2508544921875 1682.0693359375 1690.6214599609375 1696.877197265625 1706.6689453125 1716.3372802734375 1723.4595947265625 1725.885498046875 1728.26904296875 1730.1829833984375 1724.116455078125 1701.886962890625 1666.427490234375 1625.4124755859375 1580.4195556640625 1538.6297607421875 1507.96435546875 1492.58056640625 1486.4896240234375 1479.419921875 1464.3406982421875 1436.286376953125 1406.5291748046875 1380.7698974609375 1353.9930419921875 1317.249267578125 1268.412841796875 1216.9278564453125 1165.1270751953125 1115.5245361328125 1081.5789794921875 1056.029052734375 1038.1058349609375 1030.6671142578125 1035.7357177734375 1049.1702880859375 1065.54345703125 1087.653076171875 1115.593505859375 1146.4385986328125 1171.596435546875 1186.0303955078125 1193.9766845703125 1200.34326171875 1207.18701171875 1212.3636474609375 1208.4339599609375 1187.010009765625 1144.6790771484375 1091.9420166015625 1044.853271484375 998.53936767578125 952.0155029296875 913.9556884765625 883.331298828125 858.16912841796875 837.12628173828125 819.97418212890625 804.2423095703125 782.34307861328125 753.6824951171875 734.31634521484375 732.070068359375 743.31005859375 763.72698974609375 786.10333251953125 806.51959228515625 828.904296875 854.8951416015625 884.16845703125 916.285888671875 947.05810546875 967.84100341796875 972.81658935546875 968.0499267578125 965.13262939453125 970.10589599609375 989.2640380859375 1017.92999267578125 1030.355224609375 1029.0025634765625 1028.94921875 1026.9822998046875 1022.92523193359375 1019.91156005859375 1020.10919189453125 1025.2674560546875 1028.21923828125 1026.64306640625 1048.3052978515625 1084.1072998046875 1099.4927978515625 1106.4373779296875 1110.6746826171875 1112.6983642578125 1113.6624755859375 1113.47509765625 1110.539794921875 1100.4163818359375 1083.69384765625 1062.9232177734375 1040.73779296875 1019.66162109375 999.88128662109375 985.27679443359375 974.4525146484375 963.343505859375 955.3643798828125 951.4176025390625 951.75701904296875 954.1136474609375 958.16766357421875 965.15869140625 974.6922607421875 989.272705078125 1010.3992919921875 1031.4176025390625 1052.3472900390625 1074.3619384765625 1099.39013671875 1126.5494384765625 1155.5521240234375 1186.9288330078125 1216.87255859375 1244.8887939453125 1267.031005859375 1276.065185546875 1271.1893310546875 1261.507080078125 1252.1414794921875 1244.377197265625 1238.252197265625 1230.906982421875 1224.82373046875 1217.62158203125 1195.9364013671875 1154.3851318359375 1115.1107177734375 1090.96826171875 1068.2823486328125 1041.8331298828125 1018.76629638671875 999.38665771484375 979.95574951171875 962.3475341796875 945.753173828125 929.17523193359375 913.6630859375 897.7550048828125 880.32611083984375 859.32177734375 837.1678466796875 817.41485595703125 793.903076171875 771.87030029296875 760.15228271484375 742.34625244140625 725.796875 712.57562255859375 701.13671875 691.21624755859375 682.8780517578125 675.30804443359375 668.3739013671875 661.45574951171875 654.62103271484375 648.1866455078125 642.02288818359375 636.02398681640625 629.8275146484375 623.86724853515625 617.87017822265625 611.76214599609375
1825.0538330078125 1822.4954833984375 1883.43994140625 1914.7919921875 1865.0162353515625 1774.5474853515625 1687.7138671875 1626.768798828125 1580.041259765625 1539.500732421875 1510.7154541015625 1490.0250244140625 1463.531005859375 1426.250732421875 1393.342041015625 1370.4490966796875 1349.0162353515625 1319.41845703125 1290.7982177734375 1270.126220703125 1248.275390625 1229.734130859375 1208.25390625 1180.6116943359375 1153.193359375 1128.934814453125 1105.5538330078125 1076.1754150390625 1042.9541015625 1011.86407470703125 985.2601318359375 961.8082275390625 939.36248779296875 915.8760986328125 893.97796630859375 873.7596435546875 856.63641357421875 841.132568359375 828.06610107421875 820.81158447265625 818.8828125 817.90667724609375 817.18499755859375 816.794189453125 816.7786865234375 816.8885498046875 817.069091796875 818.0751953125 821.46697998046875 827.91802978515625 834.79522705078125 839.70703125 845.493896484375 860.49847412109375 887.98736572265625 922.97454833984375 962.3377685546875 1003.40277099609375 1046.7376708984375 1089.7955322265625 1130.3306884765625 1170.1285400390625 1205.854248046875 1234.5174560546875 1258.046875 1278.23291015625 1293.22802734375 1304.14501953125 1317.6055908203125 1337.8612060546875 1359.6527099609375 1377.4356689453125 1385.9410400390625 1390.2578125 1407.209716796875 1433.7056884765625 1455.0489501953125 1477.4998779296875 1512.6873779296875 1553.791259765625 1596.542724609375 1626.605712890625 1605.8468017578125 1537.5797119140625 1471.091064453125 1422.70947265625 1412.5660400390625 1420.0985107421875 1431.744140625 1438.201416015625 1438.4410400390625 1443.3359375 1459.9833984375 1491.2545166015625 1545.285400390625 1617.3531494140625 1674.3734130859375 1698.699462890625 1714.5986328125 1721.7550048828125 1724.686279296875 1729.7310791015625 1739.727783203125 1749.844482421875 1757.822265625 1760.6539306640625 1762.64453125 1762.34228515625 1753.80615234375 1731.113525390625 1696.5023193359375 1654.11181640625 1608.5640869140625 1566.248779296875 1538.590087890625 1526.746337890625 1521.195556640625 1510.385009765625 1489.84619140625 1460.64453125 1431.392333984375 1404.05078125 1372.067138671875 1330.760498046875 1282.3851318359375 1231.169921875 1175.488037109375 1124.604248046875 1087.627197265625 1059.85107421875 1041.5423583984375 1034.8651123046875 1038.6197509765625 1051.4329833984375 1069.2943115234375 1091.656005859375 1121.8648681640625 1156.591796875 1187.6475830078125 1205.5213623046875 1212.2315673828125 1216.86865234375 1223.0103759765625 1226.747314453125 1216.4439697265625 1185.603759765625 1141.465576171875 1093.305419921875 1046.926513671875 1000.4530029296875 954.7864990234375 910.942626953125 872.41943359375 846.99188232421875 828.43756103515625 812.9830322265625 796.2469482421875 772.16400146484375 746.03192138671875 732.98345947265625 737.15771484375 753.9359130859375 776.8140869140625 801.74365234375 826.2989501953125 850.61419677734375 876.33660888671875 905.51812744140625 937.23944091796875 966.99658203125 986.32501220703125 990.91162109375 988.90692138671875 989.2154541015625 997.579833984375 1018.11865234375 1047.8590087890625 1062.5106201171875 1060.1666259765625 1058.9991455078125 1058.134033203125 1056.2872314453125 1054.328369140625 1052.9970703125 1055.42578125 1055.755126953125 1050.2379150390625 1063.4017333984375 1091.31689453125 1106.4346923828125 1113.3741455078125 1117.673583984375 1120.75390625 1122.20361328125 1121.057373046875 1117.02392578125 1108.83837890625 1098.57373046875 1083.01904296875 1061.80078125 1040.4765625 1019.72509765625 1003.20074462890625 988.58355712890625 974.928955078125 964.70611572265625 960.9801025390625 960.8897705078125 963.01708984375 967.87774658203125 974.85540771484375 978.1185302734375 981.913818359375 996.87359619140625 1013.5377197265625 1032.198486328125 1052.2120361328125 1074.9881591796875 1101.7578125 1130.858154296875 1161.3201904296875 1192.731689453125 1223.6324462890625 1251.28466796875 1273.8355712890625 1284.083251953125 1279.453125 1270.857666015625 1263.102294921875 1256.359619140625 1247.207763671875 1234.9075927734375 1216.3541259765625 1187.99609375 1149.3834228515625 1108.7769775390625 1084.693115234375 1062.374267578125 1036.6353759765625 1012.9912109375 993.61004638671875 975.57025146484375 957.9901123046875 941.60107421875 926.45556640625 912.48565673828125 896.01593017578125 877.22088623046875 857.7862548828125 840.369384765625 827.14898681640625 812.59613037109375 802.7490234375 799.04931640625 785.869873046875 764.258544921875 741.7879638671875 721.639892578125 702.7586669921875 687.8203125 676.7818603515625 668.35516357421875 661.13189697265625 654.71099853515625 648.42901611328125 642.22930908203125 636.2232666015625 629.8236083984375 623.74493408203125 617.9658203125 612.0738525390625
1771.1419677734375 1752.6898193359375 1805.6107177734375 1869.22216796875 1847.1617431640625 1762.3046875 1666.740478515625 1592.7340087890625 1546.299560546875 1509.3338623046875 1480.500244140625 1456.7025146484375 1429.376220703125 1396.7401123046875 1368.3284912109375 1346.511962890625 1325.1048583984375 1294.8841552734375 1266.5423583984375 1249.751220703125 1229.71142578125 1208.06689453125 1187.592529296875 1161.652587890625 1127.933349609375 1090.0888671875 1066.1590576171875 1046.952392578125 1018.18890380859375 992.2030029296875 968.427490234375 943.544677734375 921.42315673828125 900.72772216796875 880.15948486328125 861.06719970703125 845.10223388671875 832.48602294921875 824.12396240234375 820.46136474609375 819.266357421875 818.4884033203125 817.86138916015625 817.745849609375 817.90216064453125 817.94683837890625 818.57659912109375 821.97991943359375 830.706787109375 841.96636962890625 850.6905517578125 857.599609375 861.57684326171875 868.08331298828125 892.091796875 935.0118408203125 983.7093505859375 1028.2841796875 1071.117919921875 1111.468994140625 1146.9996337890625 1185.3482666015625 1227.6617431640625 1262.8072509765625 1287.5733642578125 1308.8170166015625 1328.431884765625 1343.0079345703125 1352.177978515625 1365.5963134765625 1388.5504150390625 1413.4405517578125 1430.555419921875 1440.4210205078125 1448.3026123046875 1466.3218994140625 1491.89013671875 1512.5321044921875 1540.576904296875 1579.0860595703125 1623.8790283203125 1655.31982421875 1635.373779296875 1582.255615234375 1530.2698974609375 1475.34033203125 1444.7698974609375 1442.4302978515625 1451.9288330078125 1460.0128173828125 1462.568359375 1465.4337158203125 1474.6234130859375 1494.5145263671875 1535.5440673828125 1595.7060546875 1649.1451416015625 1694.4752197265625 1734.1090087890625 1750.422119140625 1756.9000244140625 1762.693359375 1772.2691650390625 1782.82568359375 1792.8460693359375 1798.143310546875 1797.9261474609375 1795.5721435546875 1785.2239990234375 1760.724365234375 1723.7698974609375 1677.9833984375 1633.2706298828125 1597.5633544921875 1574.0352783203125 1562.1922607421875 1554.8836669921875 1539.6298828125 1514.5377197265625 1483.864013671875 1452.04833984375 1420.4288330078125 1384.0030517578125 1340.50634765625 1294.1168212890625 1246.9501953125 1191.9759521484375 1136.3375244140625 1095.0455322265625 1064.8408203125 1046.357421875 1040.13427734375 1042.8380126953125 1056.188232421875 1077.7720947265625 1102.6781005859375 1134.3975830078125 1170.740478515625 1204.1258544921875 1224.3306884765625 1230.6688232421875 1233.357666015625 1237.6739501953125 1236.354736328125 1217.8934326171875 1180.8720703125 1135.96923828125 1091.736572265625 1047.4893798828125 1002.240478515625 957.07177734375 908.4652099609375 862.7506103515625 835.2557373046875 817.84747314453125 804.4639892578125 787.66949462890625 763.5870361328125 741.89801025390625 735.356201171875 743.8248291015625 763.68060302734375 788.88330078125 816.21136474609375 843.9912109375 871.183349609375 898.1468505859375 927.1654052734375 959.03814697265625 987.5484619140625 1003.70782470703125 1007.66204833984375 1010.0614013671875 1015.57452392578125 1027.709716796875 1050.354248046875 1078.2501220703125 1093.6519775390625 1092.0423583984375 1089.3267822265625 1087.8516845703125 1087.2886962890625 1087.2269287109375 1086.5469970703125 1086.7115478515625 1083.90283203125 1076.4580078125 1082.4539794921875 1100.325927734375 1113.5736083984375 1121.1434326171875 1126.06689453125 1129.89404296875 1131.343017578125 1129.8165283203125 1126.5130615234375 1120.435302734375 1114.068115234375 1103.4334716796875 1083.1524658203125 1059.0950927734375 1036.8673095703125 1018.9794921875 1004.0648193359375 988.62811279296875 977.291748046875 972.18304443359375 971.448486328125 972.99267578125 977.14544677734375 984.71331787109375 987.22149658203125 983.94268798828125 989.020751953125 1000.36383056640625 1015.5650634765625 1032.3602294921875 1052.47509765625 1077.8348388671875 1106.1043701171875 1137.0433349609375 1169.591552734375 1201.24951171875 1232.4774169921875 1265.1114501953125 1289.9361572265625 1297.5989990234375 1291.041259765625 1282.985107421875 1274.9842529296875 1262.0189208984375 1239.024169921875 1206.60546875 1169.4580078125 1131.0731201171875 1101.0484619140625 1078.007568359375 1055.2022705078125 1032.1661376953125 1010.3514404296875 991.66937255859375 975.45745849609375 959.66375732421875 943.5760498046875 927.21392822265625 911.20751953125 894.494384765625 879.63714599609375 868.653076171875 858.32464599609375 846.96136474609375 840.60626220703125 839.6759033203125 838.27947998046875 831.20758056640625 813.889404296875 789.99786376953125 763.62933349609375 735.94097900390625 710.0697021484375 687.3096923828125 671.41668701171875 661.733154296875 654.47100830078125 647.7689208984375 641.60565185546875 635.73907470703125 629.704345703125 623.8614501953125 618.54254150390625 613.32830810546875
1728.0654296875 1704.03955078125 1716.872802734375 1787.171630859375 1795.6561279296875 1716.1019287109375 1629.0164794921875 1563.2843017578125 1517.8973388671875 1482.0439453125 1452.744873046875 1425.2000732421875 1396.6512451171875 1371.6800537109375 1348.170166015625 1323.00341796875 1298.003662109375 1267.5625 1233.2608642578125 1215.891357421875 1206.09326171875 1186.0557861328125 1165.559326171875 1141.476318359375 1105.308349609375 1062.0869140625 1033.437744140625 1013.117431640625 989.6435546875 968.17047119140625 947.64471435546875 926.065185546875 904.53564453125 885.46917724609375 867.21710205078125 849.6253662109375 835.08868408203125 826.16668701171875 822.19256591796875 820.76788330078125 819.95556640625 819.35797119140625 818.9892578125 818.97467041015625 819.10052490234375 819.2984619140625 820.46588134765625 826.95770263671875 840.9556884765625 855.16619873046875 864.46466064453125 874.26239013671875 885.3748779296875 887.06060791015625 897.9639892578125 935.70538330078125 989.58380126953125 1043.5162353515625 1091.7940673828125 1135.1112060546875 1169.4547119140625 1204.219482421875 1246.3057861328125 1283.5030517578125 1309.238037109375 1331.7845458984375 1354.40966796875 1373.0079345703125 1382.81298828125 1392.0908203125 1410.58154296875 1437.255859375 1461.8280029296875 1477.1409912109375 1485.44189453125 1495.2265625 1513.4224853515625 1539.1781005859375 1571.80322265625 1612.5360107421875 1659.6793212890625 1689.8782958984375 1677.27197265625 1631.581787109375 1582.234130859375 1526.314697265625 1480.8173828125 1468.4322509765625 1474.52490234375 1483.5908203125 1487.4234619140625 1488.2635498046875 1492.329345703125 1505.552734375 1540.36865234375 1592.5369873046875 1640.8499755859375 1682.12841796875 1716.568359375 1745.8577880859375 1769.7039794921875 1788.7918701171875 1803.684326171875 1815.0743408203125 1825.6719970703125 1833.8189697265625 1833.8629150390625 1828.566162109375 1814.641845703125 1784.914306640625 1745.1661376953125 1702.1202392578125 1663.7818603515625 1633.3646240234375 1610.5318603515625 1597.69287109375 1586.9755859375 1566.339111328125 1536.0245361328125 1501.6893310546875 1465.0556640625 1428.3106689453125 1390.78955078125 1350.0003662109375 1306.64794921875 1259.193359375 1205.015869140625 1150.953369140625 1106.120849609375 1072.646484375 1053.1083984375 1046.8714599609375 1049.0389404296875 1063.2930908203125 1088.902099609375 1118.8546142578125 1153.712890625 1192.72607421875 1227.0338134765625 1245.259033203125 1248.3646240234375 1248.453369140625 1249.1177978515625 1238.7955322265625 1212.0089111328125 1175.8594970703125 1133.5223388671875 1088.1978759765625 1041.692138671875 996.55950927734375 954.23785400390625 905.54046630859375 857.5633544921875 826.2745361328125 808.098388671875 794.38958740234375 777.10894775390625 754.870849609375 739.73468017578125 739.29913330078125 750.78955078125 771.76287841796875 798.2298583984375 826.88067626953125 856.925537109375 887.3935546875 917.91094970703125 948.6463623046875 980.690673828125 1008.4383544921875 1022.84490966796875 1028.25390625 1033.2119140625 1041.33056640625 1056.9742431640625 1082.6800537109375 1109.2423095703125 1123.6143798828125 1123.369873046875 1119.19091796875 1114.9246826171875 1112.97021484375 1113.299560546875 1113.8291015625 1112.1529541015625 1106.5743408203125 1099.8868408203125 1103.4278564453125 1113.547119140625 1123.2899169921875 1130.185791015625 1135.068603515625 1138.8548583984375 1140.68310546875 1140.3802490234375 1138.34521484375 1134.099609375 1129.5670166015625 1119.2061767578125 1096.4892578125 1071.833251953125 1054.0975341796875 1039.04345703125 1020.53155517578125 1002.8623046875 990.81988525390625 984.91064453125 983.50238037109375 985.28192138671875 988.48309326171875 994.0333251953125 995.65374755859375 989.6962890625 987.70123291015625 992.8695068359375 1003.226318359375 1016.279541015625 1034.0875244140625 1058.4453125 1086.32275390625 1116.6815185546875 1148.348388671875 1181.2041015625 1216.6898193359375 1254.8419189453125 1289.692626953125 1308.281982421875 1305.71728515625 1297.257568359375 1287.1739501953125 1268.3018798828125 1236.84423828125 1195.5567626953125 1150.9229736328125 1116.5159912109375 1092.9755859375 1071.3970947265625 1049.033203125 1027.44091796875 1007.371337890625 990.0032958984375 975.32611083984375 960.9661865234375 945.33740234375 928.266357421875 911.18951416015625 896.7467041015625 889.4814453125 883.6671142578125 873.2196044921875 870.55767822265625 872.8572998046875 873.39312744140625 871.0770263671875 865.98883056640625 854.97540283203125 834.87115478515625 807.83123779296875 777.42877197265625 743.99444580078125 711.26171875 688.05145263671875 672.54608154296875 659.95208740234375 648.79571533203125 641.2904052734375 635.76568603515625 630.18743896484375 624.60357666015625 619.5152587890625 614.712158203125
1686.4459228515625 1664.7137451171875 1652.1446533203125 1689.1851806640625 1700.304443359375 1643.7646484375 1579.9417724609375 1531.2930908203125 1486.32373046875 1452.666015625 1428.6505126953125 1400.7626953125 1367.9620361328125 1343.2919921875 1326.2811279296875 1303.80712890625 1274.3486328125 1241.5048828125 1206.54931640625 1180.8480224609375 1176.4871826171875 1167.1654052734375 1142.47021484375 1111.6697998046875 1074.4100341796875 1036.338134765625 1003.42999267578125 976.54302978515625 957.74908447265625 942.2945556640625 924.048095703125 905.36126708984375 886.38140869140625 869.49859619140625 854.28350830078125 839.38714599609375 828.4095458984375 823.52947998046875 822.09698486328125 821.47735595703125 820.9854736328125 820.58544921875 820.39105224609375 820.40484619140625 820.7864990234375 821.47320556640625 824.06158447265625 833.20428466796875 849.30859375 865.40087890625 877.1966552734375 889.34246826171875 905.9007568359375 917.796630859375 922.568603515625 942.95635986328125 987.2618408203125 1040.8638916015625 1091.6629638671875 1141.5401611328125 1184.3204345703125 1220.6751708984375 1258.972412109375 1294.587646484375 1323.126220703125 1348.899658203125 1373.253173828125 1392.7559814453125 1404.7662353515625 1419.0118408203125 1436.95947265625 1458.388916015625 1486.025634765625 1509.3272705078125 1522.2388916015625 1529.7384033203125 1538.608154296875 1564.461181640625 1603.1534423828125 1644.690673828125 1690.5177001953125 1728.951904296875 1725.0504150390625 1678.3629150390625 1629.5980224609375 1575.353759765625 1525.55908203125 1502.5902099609375 1499.452392578125 1507.300048828125 1511.9365234375 1511.697509765625 1512.4798583984375 1519.6165771484375 1543.3250732421875 1596.27783203125 1650.0792236328125 1683.25537109375 1714.2445068359375 1744.8731689453125 1771.6434326171875 1799.0672607421875 1825.5369873046875 1844.553955078125 1857.49951171875 1867.355224609375 1868.8743896484375 1860.3017578125 1841.1737060546875 1809.198974609375 1771.349365234375 1735.22802734375 1703.2225341796875 1674.311767578125 1649.6878662109375 1633.2508544921875 1616.183349609375 1587.4044189453125 1549.9754638671875 1511.6070556640625 1472.291015625 1432.637939453125 1394.0909423828125 1354.6409912109375 1311.7945556640625 1262.9376220703125 1207.6162109375 1155.1307373046875 1113.2825927734375 1080.9649658203125 1061.275390625 1054.577880859375 1057.28466796875 1073.3486328125 1103.227294921875 1140.83203125 1182.0316162109375 1222.2977294921875 1254.365234375 1267.34423828125 1265.3056640625 1263.5843505859375 1260.287109375 1242.7352294921875 1211.650146484375 1175.2408447265625 1132.14501953125 1082.8980712890625 1033.708984375 990.76971435546875 949.0018310546875 901.3062744140625 854.10137939453125 819.966552734375 799.61810302734375 781.87884521484375 762.8333740234375 746.8211669921875 740.45257568359375 743.9688720703125 756.307373046875 778.0823974609375 804.89794921875 833.526123046875 864.3546142578125 897.356201171875 933.1385498046875 969.8724365234375 1003.11492919921875 1029.49072265625 1046.480224609375 1054.2054443359375 1058.6119384765625 1067.6048583984375 1086.4683837890625 1114.3477783203125 1139.3314208984375 1149.7410888671875 1149.0123291015625 1144.959228515625 1138.9566650390625 1134.377197265625 1133.951416015625 1133.348388671875 1129.1719970703125 1121.028076171875 1116.7459716796875 1123.5008544921875 1131.205078125 1136.9381103515625 1141.3077392578125 1144.7554931640625 1147.5242919921875 1149.7525634765625 1151.2052001953125 1150.4332275390625 1147.574462890625 1143.0050048828125 1129.9063720703125 1107.5751953125 1089.662353515625 1076.2275390625 1057.679443359375 1035.5748291015625 1016.67791748046875 1006.4954833984375 1001.27288818359375 997.95074462890625 998.33526611328125 999.7431640625 1000.7626953125 999.17047119140625 993.40203857421875 989.28839111328125 990.2056884765625 995.5906982421875 1004.65045166015625 1019.39208984375 1042.1025390625 1069.8992919921875 1098.463623046875 1128.6201171875 1162.9681396484375 1200.5938720703125 1240.049560546875 1278.007080078125 1302.0904541015625 1305.55322265625 1294.45458984375 1282.9066162109375 1264.9083251953125 1229.5240478515625 1180.86767578125 1137.4051513671875 1107.6787109375 1085.836181640625 1065.260009765625 1043.3670654296875 1021.939208984375 1002.5537109375 985.94659423828125 971.05328369140625 956.39825439453125 940.4859619140625 925.31024169921875 912.64874267578125 903.6676025390625 900.16448974609375 898.63134765625 896.51605224609375 898.82366943359375 903.9178466796875 906.11492919921875 902.7257080078125 896.69775390625 889.05426025390625 873.3603515625 847.238037109375 815.38824462890625 780.4063720703125 745.57183837890625 718.78131103515625 698.2060546875 677.4981689453125 659.47100830078125 647.26007080078125 640.07525634765625 633.56549072265625 626.6689453125 621.41357421875 616.03564453125
1630.668701171875 1627.0289306640625 1608.61865234375 1601.0074462890625 1599.0606689453125 1571.8719482421875 1532.5885009765625 1489.298095703125 1444.3636474609375 1421.9754638671875 1410.523193359375 1384.7677001953125 1351.3857421875 1322.307861328125 1302.1422119140625 1282.464599609375 1260.8707275390625 1234.4666748046875 1197.378662109375 1161.7841796875 1144.6329345703125 1137.0484619140625 1111.1744384765625 1071.7235107421875 1036.9217529296875 1010.44512939453125 983.73486328125 954.33917236328125 929.3480224609375 914.3499755859375 900.91107177734375 884.7340087890625 868.23101806640625 854.38348388671875 842.94512939453125 832.4654541015625 825.8314208984375 823.50018310546875 822.814697265625 822.46734619140625 822.16839599609375 821.84930419921875 821.789306640625 822.5108642578125 824.82562255859375 827.920654296875 832.4715576171875 842.54278564453125 858.777587890625 875.1175537109375 888.989990234375 903.56781005859375 924.09033203125 947.0069580078125 955.38671875 963.2984619140625 993.93927001953125 1039.2633056640625 1086.919189453125 1137.987060546875 1186.8074951171875 1227.7535400390625 1265.0418701171875 1299.846435546875 1331.1785888671875 1359.894287109375 1387.670166015625 1410.33447265625 1427.3975830078125 1449.4522705078125 1471.0594482421875 1488.3460693359375 1509.119140625 1534.6163330078125 1556.9117431640625 1567.525146484375 1570.41748046875 1587.44970703125 1622.2188720703125 1665.20263671875 1711.3011474609375 1754.0498046875 1764.360107421875 1730.274169921875 1684.4896240234375 1635.7783203125 1587.1441650390625 1545.7982177734375 1527.0223388671875 1531.339599609375 1535.076171875 1533.1439208984375 1531.6678466796875 1535.7955322265625 1553.801513671875 1600.1741943359375 1659.4259033203125 1699.701416015625 1725.177734375 1746.8939208984375 1771.8271484375 1802.4749755859375 1834.7335205078125 1864.348388671875 1886.8902587890625 1901.375732421875 1903.550048828125 1890.3494873046875 1866.6285400390625 1836.0274658203125 1802.8770751953125 1774.2366943359375 1747.2811279296875 1719.7047119140625 1694.0404052734375 1668.8699951171875 1639.2957763671875 1600.4964599609375 1557.836669921875 1516.6175537109375 1475.52294921875 1433.614013671875 1391.950927734375 1350.816162109375 1306.351806640625 1254.875 1200.67431640625 1153.484619140625 1115.5684814453125 1086.3785400390625 1069.4844970703125 1064.107177734375 1068.097900390625 1086.2200927734375 1120.63037109375 1167.457275390625 1214.2373046875 1252.2034912109375 1278.6602783203125 1285.9305419921875 1280.701904296875 1278.1026611328125 1272.37109375 1251.8572998046875 1220.2841796875 1181.8944091796875 1136.584228515625 1086.1585693359375 1032.728759765625 986.830078125 946.51611328125 894.26226806640625 842.603271484375 810.0245361328125 787.90350341796875 767.264404296875 751.33624267578125 743.37249755859375 743.50634765625 749.14410400390625 762.84423828125 785.94415283203125 812.30108642578125 840.526611328125 871.19482421875 906.28759765625 950.06805419921875 996.7935791015625 1031.6168212890625 1054.9896240234375 1073.668701171875 1082.0413818359375 1084.291015625 1093.1279296875 1115.03662109375 1144.80078125 1166.45751953125 1173.22265625 1171.5999755859375 1167.9774169921875 1160.9775390625 1154.9541015625 1153.4891357421875 1150.109619140625 1143.0283203125 1132.7767333984375 1130.3941650390625 1140.0194091796875 1147.48388671875 1150.8624267578125 1153.2747802734375 1155.3277587890625 1157.3829345703125 1159.6502685546875 1161.9556884765625 1162.64306640625 1160.8179931640625 1155.34130859375 1141.373779296875 1123.9598388671875 1111.5604248046875 1094.654296875 1070.10302734375 1048.8221435546875 1034.09716796875 1025.4686279296875 1020.10540771484375 1014.2237548828125 1010.30792236328125 1009.4573974609375 1007.88153076171875 1002.8487548828125 995.77545166015625 990.7362060546875 989.8802490234375 991.93878173828125 996.99176025390625 1007.04022216796875 1025.9781494140625 1052.3798828125 1080.30859375 1110.282958984375 1144.51416015625 1183.1182861328125 1224.5458984375 1263.1781005859375 1288.9259033203125 1293.6002197265625 1282.7637939453125 1269.3310546875 1248.4141845703125 1212.592041015625 1166.3609619140625 1127.2694091796875 1101.4254150390625 1078.7169189453125 1057.335693359375 1037.255126953125 1017.98638916015625 998.78021240234375 981.81329345703125 966.54168701171875 951.2276611328125 936.51300048828125 926.80841064453125 921.4788818359375 918.66339111328125 919.64300537109375 923.066162109375 925.168701171875 927.0042724609375 932.72174072265625 937.1669921875 933.8140869140625 926.1624755859375 918.9422607421875 909.133056640625 889.7008056640625 857.66015625 820.53863525390625 786.0262451171875 755.938232421875 730.86505126953125 703.7921142578125 679.976318359375 662.62823486328125 652.2034912109375 644.10308837890625 635.4415283203125 627.763427734375 619.16412353515625
1543.0821533203125 1571.723876953125 1569.6839599609375 1547.1221923828125 1534.69482421875 1513.3966064453125 1475.2137451171875 1438.947021484375 1398.998046875 1394.42919921875 1394.197265625 1372.3543701171875 1341.8153076171875 1312.4384765625 1285.6859130859375 1259.3221435546875 1240.6552734375 1221.39013671875 1192.642822265625 1158.002685546875 1123.181884765625 1095.5546875 1079.177001953125 1049.2308349609375 1011.8125 984.26580810546875 963.97119140625 939.82354736328125 914.03387451171875 894.72503662109375 880.69049072265625 866.38519287109375 852.5115966796875 842.0013427734375 834.4969482421875 828.77288818359375 825.54534912109375 824.36981201171875 823.85919189453125 823.529052734375 823.24468994140625 823.28173828125 824.1414794921875 827.51409912109375 833.10723876953125 838.4415283203125 846.65673828125 858.7073974609375 870.98822021484375 883.66156005859375 899.75469970703125 920.04620361328125 943.13958740234375 971.8365478515625 986.892333984375 988.616943359375 1008.614990234375 1044.230712890625 1085.6224365234375 1134.3944091796875 1185.99755859375 1230.59619140625 1268.5009765625 1303.4764404296875 1336.482421875 1366.7352294921875 1397.9027099609375 1427.4669189453125 1452.0516357421875 1478.340087890625 1503.6336669921875 1521.8121337890625 1536.8280029296875 1557.82666015625 1586.25732421875 1605.293701171875 1606.789794921875 1612.2662353515625 1637.177978515625 1672.2470703125 1712.0050048828125 1754.092529296875 1787.6953125 1785.89990234375 1752.9376220703125 1702.8941650390625 1650.2901611328125 1589.7215576171875 1555.7099609375 1555.2528076171875 1555.9832763671875 1551.182861328125 1548.700927734375 1553.0069580078125 1567.3048095703125 1597.9027099609375 1653.0723876953125 1703.7081298828125 1729.1898193359375 1747.22216796875 1772.5472412109375 1803.6072998046875 1836.5252685546875 1872.2294921875 1908.7659912109375 1934.7933349609375 1938.2640380859375 1920.13525390625 1893.7767333984375 1864.6842041015625 1836.341064453125 1815.1417236328125 1790.4483642578125 1760.12353515625 1730.79736328125 1694.670654296875 1650.7921142578125 1604.268310546875 1559.563232421875 1516.1988525390625 1471.680419921875 1427.30322265625 1384.063232421875 1341.5155029296875 1294.785888671875 1241.282470703125 1191.7337646484375 1151.6080322265625 1117.27587890625 1091.7919921875 1078.7901611328125 1075.993408203125 1081.5703125 1103.5885009765625 1141.0731201171875 1193.2115478515625 1242.484130859375 1277.7301025390625 1298.894775390625 1302.0538330078125 1295.1627197265625 1290.313232421875 1283.1822509765625 1263.198974609375 1230.6107177734375 1186.99609375 1140.080078125 1089.5216064453125 1031.6956787109375 976.21966552734375 928.90283203125 879.2535400390625 831.59527587890625 800.388671875 777.03570556640625 757.2576904296875 746.79095458984375 744.966796875 748.45147705078125 756.4249267578125 772.76739501953125 796.6197509765625 823.662109375 852.8646240234375 884.3590087890625 922.2864990234375 975.15643310546875 1030.5906982421875 1066.156982421875 1086.6536865234375 1103.0682373046875 1109.4779052734375 1109.7645263671875 1120.83837890625 1147.4521484375 1175.564453125 1192.0850830078125 1196.2861328125 1193.9091796875 1189.310791015625 1181.76171875 1176.6724853515625 1173.8814697265625 1167.06103515625 1157.510009765625 1146.780517578125 1143.741943359375 1152.40234375 1159.70263671875 1162.5452880859375 1164.9151611328125 1166.74169921875 1168.6400146484375 1170.9940185546875 1173.1014404296875 1174.915771484375 1175.1351318359375 1169.8492431640625 1157.682373046875 1144.22314453125 1128.7584228515625 1105.9346923828125 1082.794677734375 1066.58349609375 1055.6258544921875 1047.095947265625 1039.111083984375 1030.2545166015625 1023.75128173828125 1021.5887451171875 1019.03057861328125 1011.205078125 1000.2608642578125 992.81414794921875 990.6717529296875 991.1578369140625 993.34796142578125 998.8614501953125 1012.073486328125 1035.469970703125 1064.77587890625 1095.8597412109375 1129.3370361328125 1167.1873779296875 1208.6759033203125 1248.3656005859375 1273.8695068359375 1277.7218017578125 1269.0042724609375 1255.837890625 1233.220703125 1196.0296630859375 1154.1981201171875 1121.9339599609375 1098.505126953125 1076.6192626953125 1055.840087890625 1037.9190673828125 1021.236572265625 1000.6368408203125 981.50592041015625 966.8094482421875 952.3609619140625 941.9989013671875 941.4969482421875 944.3824462890625 944.18719482421875 945.828857421875 950.33148193359375 952.53363037109375 953.77069091796875 959.004150390625 963.8193359375 960.98199462890625 953.4495849609375 947.4979248046875 941.8734130859375 929.43878173828125 904.2249755859375 871.286865234375 838.30316162109375 804.75482177734375 770.10198974609375 736.9964599609375 710.70379638671875 689.0810546875 672.86895751953125 661.3741455078125 650.28387451171875 638.6580810546875 625.2352294921875
1494.6962890625 1511.051513671875 1526.133544921875 1507.7049560546875 1481.2174072265625 1466.86083984375 1435.20556640625 1392.322021484375 1356.58837890625 1370.059326171875 1376.734619140625 1359.7562255859375 1335.0985107421875 1308.2437744140625 1279.4256591796875 1249.9544677734375 1222.8961181640625 1200.32275390625 1177.913330078125 1149.8780517578125 1109.8505859375 1066.6029052734375 1052.431884765625 1034.7559814453125 1000.903564453125 967.87322998046875 941.82818603515625 922.20849609375 901.13946533203125 880.44512939453125 865.5673828125 853.0709228515625 841.91571044921875 834.32147216796875 829.9400634765625 827.54815673828125 826.24176025390625 825.405029296875 824.90802001953125 824.59442138671875 824.688720703125 826.256591796875 829.63037109375 835.54949951171875 843.48931884765625 850.82830810546875 863.4420166015625 876.52294921875 883.64581298828125 892.4892578125 910.28265380859375 940.4222412109375 970.03289794921875 997.91064453125 1016.2454833984375 1018.42657470703125 1025.39111328125 1052.6077880859375 1089.849365234375 1134.72998046875 1185.71044921875 1232.3984375 1271.760009765625 1307.2158203125 1341.32861328125 1374.09375 1408.18994140625 1446.0328369140625 1480.245361328125 1510.664306640625 1537.6851806640625 1556.7288818359375 1568.833251953125 1585.61865234375 1612.28857421875 1639.1580810546875 1648.06103515625 1644.197998046875 1660.7381591796875 1693.0433349609375 1723.8388671875 1760.2132568359375 1808.132568359375 1833.6956787109375 1809.412841796875 1758.0474853515625 1699.7137451171875 1630.73095703125 1587.16357421875 1579.3870849609375 1577.1395263671875 1570.165283203125 1566.7139892578125 1572.0068359375 1584.873291015625 1606.872314453125 1646.048095703125 1694.27978515625 1727.5689697265625 1749.684326171875 1776.2593994140625 1806.2421875 1835.438720703125 1869.1524658203125 1908.074462890625 1951.0726318359375 1967.449951171875 1950.0684814453125 1922.5128173828125 1894.686767578125 1871.201904296875 1853.7850341796875 1826.9564208984375 1785.8018798828125 1744.3021240234375 1698.0084228515625 1648.1279296875 1600.50537109375 1556.7947998046875 1512.2010498046875 1465.54541015625 1420.2557373046875 1375.8035888671875 1331.2542724609375 1283.98486328125 1232.5277099609375 1189.02197265625 1153.1151123046875 1120.772705078125 1098.0321044921875 1089.265625 1089.6868896484375 1098.623291015625 1125.1767578125 1166.4139404296875 1219.8665771484375 1266.653076171875 1299.401611328125 1317.2955322265625 1318.772705078125 1311.885009765625 1303.541015625 1291.5352783203125 1269.0953369140625 1233.6329345703125 1187.271240234375 1140.8665771484375 1087.614501953125 1027.103515625 962.0301513671875 902.4681396484375 858.30181884765625 823.7398681640625 795.37451171875 769.44647216796875 752.27557373046875 747.15594482421875 749.50067138671875 755.3050537109375 767.5601806640625 787.01971435546875 812.246826171875 842.73291015625 873.8228759765625 906.07049560546875 947.93310546875 1005.44732666015625 1063.9365234375 1101.64013671875 1121.540771484375 1132.868896484375 1135.368896484375 1137.374755859375 1153.02587890625 1181.4530029296875 1205.62548828125 1214.5596923828125 1214.6072998046875 1212.9893798828125 1209.1907958984375 1202.43701171875 1197.618408203125 1193.1485595703125 1183.6348876953125 1172.8775634765625 1163.728759765625 1159.1531982421875 1164.750244140625 1171.1470947265625 1174.240966796875 1177.118896484375 1179.06640625 1181.1651611328125 1183.79736328125 1185.4276123046875 1187.354248046875 1189.139892578125 1186.3170166015625 1176.4217529296875 1161.9327392578125 1141.0948486328125 1117.29833984375 1101.6015625 1090.684326171875 1079.3599853515625 1069.78564453125 1058.8486328125 1048.6419677734375 1042.0919189453125 1037.7569580078125 1033.297607421875 1024.195556640625 1009.8741455078125 998.5213623046875 993.4007568359375 992.082763671875 992.81280517578125 995.4197998046875 1003.29833984375 1022.472412109375 1051.0391845703125 1082.408935546875 1115.467529296875 1152.4197998046875 1193.683837890625 1232.159423828125 1256.5477294921875 1263.32568359375 1259.185791015625 1247.5050048828125 1224.7220458984375 1189.51611328125 1154.6986083984375 1128.7198486328125 1106.9718017578125 1086.257568359375 1065.4345703125 1046.21240234375 1028.2664794921875 1006.4937744140625 986.7200927734375 972.37615966796875 959.45709228515625 955.09942626953125 964.20166015625 973.24053955078125 974.8619384765625 976.0479736328125 977.89111328125 978.05218505859375 979.4249267578125 983.0362548828125 984.705322265625 982.0250244140625 977.00750732421875 974.50958251953125 971.08538818359375 960.730224609375 943.76416015625 922.82659912109375 899.29290771484375 866.454833984375 824.41314697265625 782.51531982421875 749.1646728515625 722.8095703125 700.7032470703125 683.44183349609375 667.36993408203125 650.85247802734375 632.818115234375
